X,Y,Z
-1.6173805309983376,-0.5532963090056762,-0.6589141917335025
-1.6233657918106268,-0.5658662382174251,-0.6669447347739692
-1.5739330864675403,-0.5588956209234882,-0.6520887134141066
-1.537835531387539,-0.5561609559948706,-0.6424921642258055
-1.5533589965877441,-0.5720202999340016,-0.6544225903160691
-1.5904615125190755,-0.5962359427243584,-0.6756619930384812
-1.623787874747623,-0.6195686710171655,-0.6955803098736798
-1.5738107610560903,-0.6110698584358385,-0.679789311052223
-1.2645908659414953,-0.49955433288069306,-0.5507674485862255
-1.210739331181229,-0.48651563354435157,-0.5316896843398359
-1.169157210514976,-0.4778091949555064,-0.5176821576528597
-1.1807114849812053,-0.49066552508491085,-0.527121216202023
-1.239775671394485,-0.5238083228977246,-0.5580592938958662
-1.2373179263441507,-0.5314079081912175,-0.561543682242592
-1.2297356381624653,-0.5367947050026571,-0.5626960367711136
-1.4722893547606677,-0.6530915604616458,-0.6792198167982264
-1.5930559599341418,-0.7180146535256241,-0.7409670205883401
-1.5957916380796773,-0.7306997477614279,-0.7483256993083007
-1.5867464265548628,-0.7380266104340711,-0.750179090057697
-1.579332366300026,-0.7460758826869605,-0.7527843774001732
-0.0,0.0,-0.0
-0.9701138287621396,-0.47256292985475906,-0.4699920683683061
-0.9631739626982965,-0.4763519376942267,-0.4704401951807054
-0.9594983641312052,-0.4817307965415312,-0.47246963616686216
-0.0016296509168631974,-0.0008305086727947806,-0.0008090077957345107
-0.0016232734047160074,-0.0008396238886827919,-0.0008124134163555566
-0.0,0.0,-0.0
-0.0,0.0,-0.0
-0.0,0.0,-0.0
-0.0,0.0,-0.0
-0.0,0.0,-0.0
-0.0,0.0,-0.0
-0.0,0.0,-0.0
-0.0015702943159626058,-0.0009114970613800922,-0.0008386591967722101
-0.0015634304174760992,-0.0009203455782709016,-0.0008418133559449688
-0.0015565136132622047,-0.0009291629511135192,-0.0008449390285618672
-0.0015495441373822244,-0.0009379488815323223,-0.0008480361088516594
-0.0015425222256798426,-0.0009467030722156854,-0.00085110449201065
-0.001535448115773148,-0.0009554252269260396,-0.0008541440742062402
-0.0015283220470465896,-0.0009641150505098979,-0.0008571547525804422
-0.0015211442606428787,-0.0009727722489078431,-0.0008601364252533594
-0.0015139149994548272,-0.0009813965291644777,-0.0008630889913266338
-0.0015066345081171295,-0.00098998759943834,-0.0008660123508868612
-0.0014993030329980826,-0.0009985451690117761,-0.0008689064050089711
-0.0014919208221912503,-0.00100706894830078,-0.000871771055759575
-0.0014844881255070678,-0.0010155586488647934,-0.0008746062062002805
-0.0014770051944643869,-0.0010240139834164648,-0.0008774117603909709
-0.0014694722822819672,-0.0010324346658313719,-0.0008801876233930526
-0.0014618896438699045,-0.001040820411157704,-0.0008829337012726671
-0.0014542575358210065,-0.0010491709356259052,-0.0008856499011038706
-0.0014465762164021104,-0.001057485956658275,-0.0008883361309717776
-0.0014388459455453408,-0.0010657651928785332,-0.0008909922999756713
-0.0014310669848393164,-0.0010740083641213398,-0.0008936183182320805
-0.0014232395975202956,-0.0010822151914417757,-0.0008962140968778204
-0.0014153640484632713,-0.0010903853971247837,-0.0008987795480730002
-0.001407440604173005,-0.001098518704694564,-0.0009013145850039951
-0.0013994695327750107,-0.0011066148389239313,-0.0009038191218863843
-0.0013914511040064802,-0.0011146735258436282,-0.0009062930739678538
-0.0013833855892071557,-0.0011226944927515965,-0.0009087363575310646
-0.0013752732613101476,-0.0011306774682222041,-0.0009111488898964854
-0.001367114394832699,-0.001138622182115431,-0.0009135305894251905
-0.0013589092658668972,-0.0011465283655860115,-0.0009158813755216225
-0.0013506581520703275,-0.0011543957510925292,-0.0009182011686363196
-0.001342361332656681,-0.0011622240724064726,-0.0009204898902686073
-0.0013340190883863049,-0.0011700130646212438,-0.0009227474629692553
-0.0013256317015567004,-0.001177762464161122,-0.0009249738103430977
-0.001317199455992972,-0.0011854720087901838,-0.0009271688570516187
-0.0013087226370382217,-0.0011931414376211763,-0.000929332528815502
-0.001300201531543893,-0.0012007704911243461,-0.0009314647524171437
-0.0012916364278600656,-0.0012083589111362212,-0.0009335654557031312
-0.0012830276158256953,-0.0012159064408683476,-0.0009356345675866835
-0.001274375386758808,-0.0012234128249159772,-0.0009376720180500575
-0.0012656800334466408,-0.0012308778092667133,-0.0009396777381469173
-0.0012569418501357343,-0.0012383011413091049,-0.0009416516600046673
-0.0012481611325219758,-0.0012456825698411937,-0.0009435937168267486
-0.0012393381777405922,-0.0012530218450790174,-0.0009455038428949
-0.0012304732843560961,-0.0012603187186650592,-0.0009473819735713814
-0.4251052338004135,-0.4411153885312934,-0.3303313628589351
-0.42320397849253444,-0.4448996995298207,-0.3319136472798932
-0.4230759231360841,-0.4506062767343672,-0.3349175411476222
-0.0011946003455350952,-0.0012890772797360174,-0.0009545732875455089
-0.0011855302869177996,-0.001296158470211632,-0.0009562905096668388
-0.5758576355450145,-0.6379143342817081,-0.46892893732077456
-0.5859696142640127,-0.6577149056251752,-0.481733173075299
-0.5761451277757366,-0.6552761276272993,-0.4782207820707485
-0.5669584451233682,-0.6534148484803549,-0.4751591863340344
-0.554977603741343,-0.6481491515527282,-0.4696579693890686
-0.5481849651017819,-0.6487923655500996,-0.46846746519273913
-0.5436529494855745,-0.6520754335194449,-0.4691898922823354
-0.5357678919534814,-0.6512828201749483,-0.46698987491472344
-0.5273700191428025,-0.6497489874588689,-0.46428024840766463
-0.5184740729109045,-0.6474643721273624,-0.46105925593636204
-0.5085531882534595,-0.6437338473603241,-0.4568386149598657
-0.5062257328675018,-0.64955938160544,-0.459409569147618
-0.4974585082280226,-0.6470842411139964,-0.45611635950992885
-0.4898055648970932,-0.6459259724294307,-0.45377437559584444
-0.4842834891902424,-0.6475013226278361,-0.45336588332418026
-0.47772915480590267,-0.6476386534983897,-0.45196028440815716
-0.46350650251730385,-0.6371564806491915,-0.4431810246457992
-0.46113366958420854,-0.6428162101459015,-0.4456536246195239
-0.45468244113845163,-0.6427906927828689,-0.44418473894010063
-0.44775695319159936,-0.6420045629259294,-0.4422046353227113
-0.44086545936699906,-0.6411660265276303,-0.44020434874430736
-0.43352016851425185,-0.6395551437129724,-0.43769122429426804
-0.4281525266796762,-0.6407792547226805,-0.43713090318734205
-0.4189641189911359,-0.6361600521155522,-0.43260320960593257
-0.41459395024285717,-0.6387515864578305,-0.43299462940163935
-0.38913732638648635,-0.6083768973968064,-0.4111091605088912
-0.3252052369179271,-0.5159777803530133,-0.34758094720393395
-0.31754577120358,-0.5113613259442114,-0.34339962622905956
-0.3149512089073857,-0.5148242027747707,-0.3446546810265348
-0.31053332010961493,-0.5153066414103833,-0.3439144489477089
-0.30656826070876725,-0.5165067883335521,-0.34365779881675157
-0.300851321588744,-0.5146871358578556,-0.341401060739401
-0.0008656165549333966,-0.0015038778621291363,-0.0009945148242247353
-0.0008553630026596451,-0.0015093434563102507,-0.0009951064488556598
-0.0008450805053165575,-0.0015147579750405223,-0.0009956643995667756
-0.0008347694108588588,-0.0015201212350952628,-0.000996188657477301
-0.0008244300682089869,-0.0015254330549843505,-0.0009966792048466022
-0.0008140628272452845,-0.0015306932549583772,-0.0009971360250747945
-0.0008036680387901602,-0.0015359016570147253,-0.0009975591027033028
-0.0007932460545982155,-0.001541058084903594,-0.0009979484234153848
-0.0007827972273443432,-0.0015461623641339632,-0.0009983039740366169
-0.0007723219106117923,-0.0015512143219794988,-0.000998625742535338
-0.000761820458880202,-0.0015562137874843955,-0.0009989137180230583
-0.0007512932275136084,-0.0015611605914691656,-0.000999167890754827
-0.0007407405727484175,-0.00156605456653636,-0.000999388252129562
-0.0007301628516813504,-0.0015708955470762345,-0.000999574794690341
-0.0007195604222573599,-0.0015756833692723543,-0.0009997275121246543
-0.000708933643257518,-0.0015804178711071384,-0.000999846399264618
-0.0006982828742868744,-0.0015850988923673394,-0.000999931452087149
-0.0006876084757622872,-0.0015897262746494673,-0.0009999826677141012
-0.0006769108089002279,-0.0015942998613651487,-0.001000000044412362
-0.0006661902357045571,-0.001598819497746427,-0.0009999835815939129
-0.0006554471189542741,-0.0016032850308509974,-0.0009999332798158475
-0.0006446818221912418,-0.0016076963095673848,-0.0009998491407803534
-0.0006338947097078837,-0.0016120531846200562,-0.0009997311673346553
-0.0006230861465348565,-0.001616355508574472,-0.0009995793634709168
-0.0006122564984286983,-0.0016206031358420748,-0.0009993937343261074
-0.000601406131859451,-0.0016247959226852178,-0.0009991742861818274
-0.16033036981596402,-0.4422555204995279,-0.271207066999716
-0.15563459810722885,-0.4384648854956543,-0.26813320676747066
-0.15355828586743195,-0.44200183098193835,-0.26954453699594144
-0.0005578048346299146,-0.0016410158561126899,-0.0009979584692911064
-0.14437008114186342,-0.43426211739088977,-0.26335848201459655
-0.1398671447625796,-0.43033501171313,-0.26025559540993914
-0.13752495287260058,-0.4329807521235921,-0.2611333119306396
-0.1333574561497708,-0.42982215548852054,-0.25851452372284145
-0.12949194169895412,-0.4274604179306015,-0.256387353034716
-0.12517430798368764,-0.42340585002825637,-0.25325852834721324
-0.12188030887414196,-0.4226498737185815,-0.2521136728713802
-0.11860429516117757,-0.42187244068071716,-0.25096147144005937
-0.11488781017008104,-0.41939956162460795,-0.2488088535541168
-0.1118830886728629,-0.41941514170549243,-0.2481393023629711
-0.10844928725932843,-0.4177321781527599,-0.24647025824073204
-0.10376933949622891,-0.4109721800710604,-0.2418218886437795
-0.1012568112807035,-0.41260658446295906,-0.2421237009162307
-0.09812523805585793,-0.41169414218518646,-0.24093233246661117
-0.0952085835277818,-0.41160840429778583,-0.24022880237885588
-0.09229988153092429,-0.41150561519080064,-0.2395180043582937
-0.08902983593609229,-0.4096859412116964,-0.2378132464366187
-0.08471577443618368,-0.40273475987789775,-0.23314581160278247
-0.08188774083028934,-0.4025668054221343,-0.23241857909411612
-0.07957178356338024,-0.40494529827929737,-0.23316018414223313
-0.07593265351441289,-0.4004700515313413,-0.2299608508903287
-0.07251509409927129,-0.3968218243948804,-0.22725102412770937
-0.07035928168771334,-0.4000138798527567,-0.22846112692372791
-0.06729519288553366,-0.3980421082465102,-0.22672199768124068
-0.0634244685954379,-0.3908832664043027,-0.2220442127713612
-0.06112781734264257,-0.3931729654521102,-0.22274298323780028
-0.05790770245368669,-0.3894102215693661,-0.22001683738217218
-0.05584684708376868,-0.3934038797025359,-0.22167437614357896
-0.05338759092008208,-0.39479629098393865,-0.22185959785015352
-0.0498010791452705,-0.38750851670008574,-0.21717740645205724
-0.0470551008825357,-0.38626364394425483,-0.21589635246138772
-0.0446304212751952,-0.38760858883611476,-0.21606414805959537
-0.0416265352467855,-0.38372183684522626,-0.21332087642532863
-0.0390328712308293,-0.38329636658513744,-0.2125096573195449
-0.03653227637945826,-0.38372803207457645,-0.21217496155453566
-0.03364373608084875,-0.3797814132786101,-0.20942589417950905
-0.031240848774250665,-0.3810564556580717,-0.20956145592439915
-0.028957449685204154,-0.38407017139315514,-0.21064799729489006
-0.026036228091571814,-0.378318785397663,-0.20693240713745747
-0.023630436161987248,-0.37955530817745187,-0.20704684224743056
-0.02091919169602366,-0.3755163653527898,-0.20428870486379347
-0.018566462360303737,-0.37760384081760906,-0.20486735227071343
-0.01596544333552978,-0.37440826049284803,-0.20258228864554936
-0.01347304217519335,-0.3729533676706004,-0.2012468228427852
-0.01092477328406316,-0.36884218939175845,-0.19848706110963085
-0.008657234171138839,-0.3744022229677891,-0.20093043041329947
-0.006159633013505611,-0.3702600003606366,-0.1981656001254836
-0.0037636731306669446,-0.37050997604525737,-0.19775794910577182
-0.0013578174454454417,-0.3680992259309197,-0.1959340130677684
0.0010163030326610367,-0.36655597315988436,-0.1945782708290531
0.003351261048536891,-0.3632306848232406,-0.1922842937608489
0.005682042908660007,-0.3625419443306267,-0.19139246195895349
0.008040348946101367,-0.3636093800798106,-0.19142774741840585
0.010359258283396733,-0.3628951755278948,-0.19052506095459676
0.012697379708726808,-0.3630533737157655,-0.1900816821460965
0.01488838754899438,-0.35965587172747115,-0.1877818003999096
0.01703328295003384,-0.3562434719848237,-0.18548440363292237
0.019324285864924573,-0.35636243176179294,-0.18503080082935075
0.021292029321630573,-0.3511489103869698,-0.18181615474264964
0.023369082401629424,-0.3485813876085796,-0.17998307544794093
0.00013031373961197937,-0.0017743629367931273,-0.000913594482132434
0.00014169643784351445,-0.0017747146939023491,-0.000911213616409001
0.00015307434113628665,-0.0017750063955266986,-0.0009088019156585385
0.00016444706446756374,-0.0017752380317951335,-0.0009063594614918307
0.0001758142229899023,-0.0017754095948691953,-0.0009038863365603425
0.00018717543204416827,-0.0017755210789432724,-0.0009013826245534228
0.0,-0.0,-0.0
0.0,-0.0,-0.0
0.0,-0.0,-0.0
0.0002325530877174385,-0.0017753661802862573,-0.0008910636157247634
0.0,-0.0,-0.0
0.0,-0.0,-0.0
0.0,-0.0,-0.0
0.0,-0.0,-0.0
0.0,-0.0,-0.0
0.0,-0.0,-0.0
0.0,-0.0,-0.0
0.0,-0.0,-0.0
0.0,-0.0,-0.0
0.0,-0.0,-0.0
0.0,-0.0,-0.0
0.0,-0.0,-0.0
0.0,-0.0,-0.0
0.0,-0.0,-0.0
0.0,-0.0,-0.0
0.0,-0.0,-0.0
0.0004237079548782126,-0.0017639953130596997,-0.0008418981437537168
0.0004348415022355722,-0.001762787703628729,-0.0008387447525013091
0.0004459603347673046,-0.0017615204423164544,-0.0008355629785330942
0.00045706407621750635,-0.0017601935720063843,-0.0008323529295187606
0.00046815235084095015,-0.0017588071375991667,-0.000829114714084811
0.0004792247834157989,-0.0017573611860110696,-0.0008258484418108854
0.0004902809992563015,-0.001755855766172394,-0.0008225542232260545
0.0005013206242254738,-0.0017542909290258176,-0.0008192321698050778
0.0005123432847477587,-0.00175266672752467,-0.0008158823939646328
0.0,-0.0,-0.0
0.0,-0.0,-0.0
0.0,-0.0,-0.0
0.0,-0.0,-0.0
0.0,-0.0,-0.0
0.0,-0.0,-0.0
0.0,-0.0,-0.0
0.0,-0.0,-0.0
0.0,-0.0,-0.0
0.0,-0.0,-0.0
0.0,-0.0,-0.0
0.0,-0.0,-0.0
0.0,-0.0,-0.0
0.0,-0.0,-0.0
0.0,-0.0,-0.0
0.0,-0.0,-0.0
0.0,-0.0,-0.0
0.0,-0.0,-0.0
0.0,-0.0,-0.0
0.0,-0.0,-0.0
0.0,-0.0,-0.0
0.0007498016231133685,-0.0017020475916149813,-0.0007354127425016648
0.0007603324734021343,-0.0016990772183347802,-0.000731458485496996
0.0007708375944086037,-0.0016960493491052107,-0.0007274794762917835
0.23556697046086628,-0.510428685743495,-0.21812797448797683
0.2426772706727547,-0.5179303055639155,-0.2205107347451983
0.2466749642266227,-0.5186361869220323,-0.21998404344170847
0.253529224206803,-0.525209863093756,-0.22193140437901024
0.25553059475060136,-0.5216559216017982,-0.21959116231126966
0.25874219304606694,-0.5206093423839875,-0.2183104535317898
0.2627886480030416,-0.5212183776054274,-0.2177212929655977
0.26684681173080627,-0.521802863790005,-0.21711644435568037
0.27005233311994203,-0.5206964608116287,-0.21580531289734248
0.2723743314351238,-0.5179098273224775,-0.21380052951661024
0.2764358524140642,-0.518430832543861,-0.21316118635433834
0.2773767273627042,-0.5131335143973236,-0.21013365611578888
0.2814246182990182,-0.5136178068221058,-0.20947787658491038
0.28548320566188634,-0.5140770829718001,-0.208806389068254
0.28908977950041514,-0.513689372579692,-0.20778673655236932
0.29176151094873604,-0.5116405221717846,-0.20609515488773442
0.2967762050886709,-0.5136680279106371,-0.20604142192164468
0.29800032429733925,-0.5091347072887324,-0.20335602430270522
0.3030348193189941,-0.5111114284890287,-0.20327083484882486
0.30566130567584116,-0.5089953789911245,-0.20155374675987123
0.3077750849512486,-0.5060565581338476,-0.19951505470258454
0.31433503514944416,-0.5103771645516676,-0.2003314062942975
0.3154281526094799,-0.5057910376639072,-0.19764749710575114
0.32052872918249037,-0.5076308968093487,-0.19747466455028423
0.3205371271289779,-0.5014259871976879,-0.19417514774228892
0.32461144449589857,-0.5016208739327459,-0.19335960097487698
0.3313028828026211,-0.5057722719420789,-0.19405636389322095
0.3322585754788346,-0.5011384213905589,-0.19137809326718516
0.33528997604394506,-0.4996735858305011,-0.1899157511723787
0.3393823147187298,-0.49977087608914483,-0.18904427099022258
0.3429413668727853,-0.49905466570963536,-0.18786075628847143
0.3475896834423356,-0.49988631935313477,-0.18725413391979048
0.3500530846443244,-0.4975572705399478,-0.18546063672301868
0.35360540322165146,-0.4967759834260109,-0.18424405576731975
0.3532365491095435,-0.49053126440372763,-0.1810084859096129
0.3607022375621398,-0.4951481911234028,-0.1817779936940489
0.36367727639388925,-0.493529253223983,-0.18024646790837856
0.367213772654995,-0.4926633911173328,-0.178988508593865
0.3701687149414266,-0.4910085212851546,-0.1774424202026654
0.37311113089799963,-0.48933703596265354,-0.17589032724598896
0.377216033620288,-0.4891728750836737,-0.17487706357543317
0.3771816081123983,-0.4836665652977572,-0.17195848073541953
0.38424887081681397,-0.48724985799122006,-0.1722685402218387
0.3853547160899123,-0.4832399541478061,-0.16988799566551607
0.3900545495842781,-0.4837369594733662,-0.16909190156448284
0.3923274590119219,-0.48120751254333116,-0.16723487483800967
0.39765123131947794,-0.4823953184189175,-0.166665155702865
0.40113997129837864,-0.4813160414866977,-0.16530454956302731
0.4046240237968734,-0.48021486382514833,-0.16393336164172384
0.4068474316105257,-0.4776175310169448,-0.16205142371827572
0.41284170873677023,-0.4794149052897877,-0.16165440365316702
0.41568272620642843,-0.47751069553227454,-0.1600015027837185
0.41658695481105423,-0.47340536404978173,-0.15761572529976373
0.42261287028052613,-0.4751045469711954,-0.15715938382176037
0.4267189484289946,-0.474590778710657,-0.1559600548431218
0.42690517683863516,-0.4697329217619831,-0.1533363176435958
0.4138828459044994,-0.4505571685131214,-0.14608298314680823
0.40527905198440883,-0.43650538544517536,-0.14055602957005048
0.4011833713700144,-0.42751446149449834,-0.13670170890228883
0.4016845252681289,-0.42352035254162734,-0.13446597015399653
0.4048460875937266,-0.4223462987064893,-0.13312880206481112
0.4052867359397488,-0.41834864715933395,-0.13090482996177383
0.3974932527041216,-0.4059850628156499,-0.12609227893354458
0.4019305893370835,-0.40620210475038565,-0.12520661357716267
0.39739418030095064,-0.3974013590995689,-0.12155278723676624
0.39971492500280226,-0.3955307842269059,-0.12003512942105121
0.3950304196662968,-0.3868007593399644,-0.11645229674921186
0.3951746986478598,-0.3828925912374632,-0.11434273854238747
0.3959888150645573,-0.3796692645369867,-0.11244603407857302
0.40104013275210737,-0.38049426639182893,-0.11174496408477237
0.39752956391811245,-0.3732243586934084,-0.1086732892960467
0.3946618850023044,-0.36666372500403727,-0.10583353210625909
0.39895398299417806,-0.36678296996906334,-0.10492865638549721
0.39235688407751723,-0.35695383904705724,-0.10119315925909059
0.4002627000606167,-0.36034673386315585,-0.10121286292171892
0.3942660251151215,-0.3512442475273313,-0.09772809489089755
0.39924239583164123,-0.3519654743348027,-0.09698878045304529
0.3938512913055164,-0.34358786612203107,-0.09375264174372513
0.39433571052228117,-0.34041745025375114,-0.09195843290882111
0.3970393199232538,-0.3391695486433538,-0.09068532715949663
0.3937144447627352,-0.332812183130502,-0.08805673591592549
0.3941073151180204,-0.32965770729659527,-0.08629165086234596
0.3967524822740595,-0.3283938628483123,-0.08502325614379902
0.40320970432447834,-0.3302388770672966,-0.08454711935162275
0.39435182296463744,-0.31959321263657686,-0.08088767947304012
0.3954010100359961,-0.31707499440104964,-0.07931267824078841
0.3917841142380409,-0.31086729853135947,-0.07682950604904411
0.3943270277156545,-0.3095862393316123,-0.07557502976336544
0.3960823304849249,-0.3076803495941669,-0.07416616105427358
0.3962548771939048,-0.3045578579393475,-0.07246777664165242
0.41137374025825973,-0.31282666279642485,-0.07345161878365779
0.42817702952317205,-0.32214624708513834,-0.07461391401443954
0.47927073790589375,-0.3567492249125599,-0.08147763108729639
0.516396107568337,-0.38028288494101337,-0.08560961766680589
0.5449799149490112,-0.3970403746983123,-0.08806726343579878
0.5520350193119297,-0.3978681638721202,-0.08691564309735914
0.5477990448603393,-0.3905706550720422,-0.08399294292670563
0.5483599262951293,-0.38675556817832746,-0.08183887225991715
0.5220149790979499,-0.36419371825818836,-0.07579141605353051
0.45700542691490287,-0.3153805406734633,-0.06451489280908508
0.4251114256191625,-0.2901784271065173,-0.05831606267639375
0.4267222264414423,-0.2880981658161271,-0.056847121565546395
0.42335738268618656,-0.2826953294304414,-0.05473483484637837
0.42243113826754475,-0.2789756923009887,-0.05296697013339791
0.42730303006185927,-0.27907910397387053,-0.051922884807507806
0.4313486190091912,-0.2786005055661288,-0.050755892659735465
0.43875313302635455,-0.2802311134044142,-0.04995211041354622
0.433556377942556,-0.27381931044322605,-0.04771686318531186
0.44181436208605346,-0.27590505844621666,-0.04696243363977341
0.4484085304184878,-0.2768682943628462,-0.045986778947475423
0.4465168337041859,-0.272580075625386,-0.04413453457072864
0.45568065977900735,-0.27501118032668537,-0.04335929840512102
0.4528938336159519,-0.27020624446156655,-0.041434373894704814
0.45264052032610647,-0.2669540478841283,-0.039763126530793065
0.45925405771501565,-0.26772825592677946,-0.038682642830052814
0.46329163245036564,-0.26694815146832873,-0.03735722208438247
0.46472864350392507,-0.2646521199013254,-0.03581281406815919
0.4722377324255814,-0.26577332202594617,-0.034714715338861425
0.4745338922949946,-0.2639143689845409,-0.03320878004959447
0.47856903385327076,-0.26299945806172215,-0.03181226480359795
0.4790935461558756,-0.26014375112417604,-0.030176264654197243
0.4883967345353346,-0.2620088607256618,-0.029068789720272957
0.48890376019881343,-0.25910931839175827,-0.02741343787477049
0.4964690505576635,-0.2599162650219568,-0.02613564848197888
0.49606517020591134,-0.25652265151884657,-0.024423210797253514
0.49652465855853306,-0.25359252969348384,-0.022762331248322304
0.5049924652339438,-0.2547129055435357,-0.021447517479293774
0.5054299279929937,-0.2517433354063132,-0.019770641703592357
0.5139176719135101,-0.2527440094318502,-0.018387714336396466
0.5107355733198119,-0.24798861981937026,-0.016578290369056742
0.5174292872909987,-0.2480228470303462,-0.015086454166197541
0.5241325116463758,-0.247994569779113,-0.013559254298655241
0.5245034269242204,-0.2449422709123064,-0.011853424392709167
0.5266682953303446,-0.24272774531940924,-0.010188136619909537
0.5288196521392914,-0.24049589684611045,-0.008516690601736267
0.536431134013268,-0.2407029178510556,-0.006909648215847572
0.5358244415767988,-0.23719473754618586,-0.005182075696614602
0.5425227140873029,-0.23689822599673735,-0.0035134387924889506
0.5382057643958744,-0.23179180228907117,-0.001773466056724868
0.5540959581724276,-0.23533323941555107,-7.092749941570675e-05
0.5478932859353612,-0.22944770321223676,0.0016577097347803074
0.5508840693198608,-0.227444989038427,0.0033967466445521243
0.5584948594308601,-0.22730069602825262,0.005190340118470472
0.5670410005217595,-0.22745549095312867,0.007035986827601632
0.567228572674219,-0.2242194394075177,0.008798112637781946
0.5655299872525452,-0.22025948017920724,0.01051946600539616
0.5759363301499238,-0.22097623054857748,0.012486099948889447
0.5835526243343331,-0.22053074167625455,0.014441006742568005
0.5836782055917678,-0.2172221109495906,0.016227720582073855
0.5894119697174094,-0.21597911688346788,0.018181786931162285
0.5885610150336398,-0.21230717140899794,0.019941290251539703
0.5933344377705764,-0.21065334843811756,0.021897050965603754
0.5952703657236551,-0.20796537542916588,0.02376230774695894
0.6141978297054708,-0.21110681103602363,0.026362602506473345
0.6095017982527443,-0.20605927236248045,0.027985764001364183
0.6123504403070681,-0.20358371515957202,0.02994402961921007
0.619931058606173,-0.2026335320974842,0.032159109942610585
0.6379691718559075,-0.2049688710435639,0.03498718027989973
0.6674620335144443,-0.2107300957213015,0.03857861294073597
0.6731766023455064,-0.20879889121179582,0.04089410105152007
0.6760172397729468,-0.20593929675984177,0.04305465894233315
0.6750158084814392,-0.20190926924267633,0.04497052047246926
0.6739864541627084,-0.19789196534547643,0.04687332086734847
0.6690949214686724,-0.1927827684001243,0.048485148005246774
0.6660858699876083,-0.1882685153748817,0.05020545651210398
0.6640058742439878,-0.18405360133254503,0.0519762646981543
0.6628585552377504,-0.18012342587580898,0.053806148855680566
0.6626475691152596,-0.17646339657541982,0.055703688970951855
0.65951935968969,-0.17205266185907037,0.05734210159850662
0.6544300432699763,-0.16718256964392303,0.05878223785893852
0.6560700389941518,-0.16405766292573604,0.06081294571423455
0.6586570245031785,-0.16115391988378203,0.06293974552549142
0.6505761530540604,-0.15567652801386545,0.0640277723730835
0.6473019203364072,-0.1514169660353023,0.06555290247815902
0.6469084027954768,-0.14785725581446313,0.06735595061547212
0.646491243579735,-0.14430253075906407,0.06915101607283093
0.6411931193353384,-0.1396946602902458,0.07040468891905986
0.6416975256630558,-0.13638208158201182,0.07227895959162474
0.6343961991587465,-0.13145197683514606,0.07325198520707246
0.631930513735995,-0.12758080908031108,0.07475310090631247
0.633336759028077,-0.12450169523362524,0.07670674050818092
0.6288729075080799,-0.12028931588697224,0.07793843064223326
0.6341375679141394,-0.1179377831918639,0.08037580946623976
0.6266964731543281,-0.11323870810926256,0.08119452336387975
0.6270389567437203,-0.1099873458924232,0.08299973236042964
0.6214970594165178,-0.10573476694720288,0.0840095917447456
0.6247273029635505,-0.1029900507579258,0.0861969879016309
0.6210923951471387,-0.09911872593245102,0.08743442369087763
0.6144976095967013,-0.0948316978040121,0.08822507151302215
0.6166865134085262,-0.09192594575731397,0.09026313627592515
0.6149390792320568,-0.08843342622904019,0.09172504734559805
0.6082721048465396,-0.08427973853503357,0.09242854591011583
0.6094186933481154,-0.08123952590962566,0.09430293566944728
0.6066251226094487,-0.07768434788634332,0.09556215021936357
0.608710817135423,-0.07475914854957849,0.09758726746609667
0.6029335439834165,-0.070888812651007,0.09834088422788446
0.6059587401388137,-0.06806882700870873,0.10052202623687906
0.6040610594051194,-0.0646907044198679,0.10188924669810819
0.5982197737794211,-0.06093134843194273,0.1025694422808446
0.5952998611081282,-0.05751578034841762,0.10372595929309629
0.5972632606519401,-0.054577157475789534,0.10573062215920645
0.5933222258234395,-0.05110926866351764,0.10668459157497279
0.5874002413340881,-0.04752210869007828,0.10725506819085677
0.5863620235853191,-0.044366018160735265,0.10869817404357124
0.5862845857380898,-0.04128776102128487,0.1103166561616205
0.5842267826107039,-0.03808031826137029,0.11155704638580542
0.5821499849871529,-0.03489219474878033,0.1127828843799178
0.5751551766250449,-0.031455564656583834,0.11303134436308593
0.5838173231163251,-0.02886493939081325,0.11636222436907918
0.5758071902857703,-0.025444864907354175,0.11637284006284576
0.5824666390687903,-0.022678182247747286,0.11934550040960752
0.5754014556714222,-0.019377134718132183,0.11950602872057602
0.5741912111864503,-0.016314442157193215,0.12086069058347448
0.5710068811497979,-0.013216260540597102,0.12178888180005136
0.5687831142029416,-0.010166073815395998,0.12290825815285181
0.5694724198807479,-0.007173108633530961,0.12465438023441434
0.5642838336148414,-0.004126735095887679,0.12510290025270326
0.5629844335904173,-0.001139765489744371,0.1263972063849894
0.5616671355280658,0.0018369140518016414,0.1276820062286094
0.5603320500186723,0.004803202840430426,0.12895727122043701
0.5589792301689123,0.0077590000832530315,0.1302229597739831
0.556635776920077,0.010685527051248589,0.1312496168082626
0.5533038612015155,0.01356719464009698,0.13202944717289417
0.5528726606399381,0.016504446485027524,0.1334931866232391
0.5465975723533026,0.019236137200438652,0.13352936468094168
0.5490440580914366,0.022259195219313743,0.13568787971733628
0.548559346119631,0.025178997666025937,0.13713027404934297
0.5480560711654902,0.028097948067663636,0.13856802795935558
0.5455994676593623,0.03090634881356369,0.13950638095092957
0.5450610278531792,0.0338129914120848,0.14092966103909108
0.5416078821532704,0.03652318119762185,0.14159101076982367
0.54296443289209,0.03955249345343512,0.14350697259994394
0.5442984645467248,0.04260105981107748,0.14542808704277485
0.5369493821806843,0.04494387067954034,0.1450153125052277
0.5353644765324408,0.04772727391227466,0.1461370256812326
0.5318436769022392,0.05031712828759041,0.14671916074627447
0.5359824851686031,0.05364214470411571,0.14941992157459194
0.531472686126545,0.05610684615912065,0.14971243654035743
0.5298238566333092,0.058847272222908725,0.15079688884132805
0.5262494322984325,0.06135275267498996,0.1513220859419731
0.5283876269017906,0.06452423840010912,0.1534899364325701
0.5228805658332016,0.06675155722169299,0.15343132244729232
0.5230756818467734,0.06968566492351874,0.1550346808869619
0.5260992439794753,0.07302307197756364,0.15749043981549643
0.5196116472651848,0.07502971139596251,0.1570933471559813
0.5225911758704033,0.07839273750597112,0.15955278796003744
0.517979348512262,0.08061700122804052,0.15969450495956553
0.5152495001811158,0.0831021925428159,0.16039944614410795
0.5134505844999311,0.08572151416007617,0.16138567928450423
0.5125779621470424,0.08849013486009685,0.1626602193068881
0.5107491294668758,0.09108832149424659,0.16362847124421112
0.5079691107294949,0.09350077403910245,0.1642834372606975
0.5061140728905033,0.09606735979510422,0.16522898320532295
0.5089143229274711,0.09953373767868026,0.1677029074712877
0.5004990414556917,0.10078499575646821,0.166469500643288
0.5013976452495107,0.10387935056164646,0.16831672191238284
0.5041288580659126,0.10738587840940661,0.17079641000799642
0.49756265863841304,0.1089010861655792,0.1701204122754066
0.4947008201137609,0.11118356712766517,0.17068784678883236
0.4982891206354667,0.1149320557512773,0.17348947516032462
0.49355394600456565,0.11676616636806833,0.17339601808510854
0.4970872552314569,0.12056192554488157,0.17621036315224897
0.49599969976828784,0.12326436940392338,0.17740124676028077
0.4875771688955433,0.12409998835097125,0.17594531158492155
0.48921074444606233,0.12746759001813618,0.1781035522561023
0.4798880300200247,0.12794732879365062,0.17625541198040706
0.476038065342999,0.12981981904469947,0.17638204528716472
0.4531524073311165,0.12635138119221795,0.16937598472284304
0.37972598592994466,0.10821268936600867,0.1431719368057858
0.3030328786175952,0.08822924508882081,0.11525056082650298
0.2869810262100518,0.08533757440713743,0.110092654797662
0.280867474809951,0.08527239081168711,0.10867886448451688
0.2792471272940912,0.08653206129527384,0.10898278892955932
0.281192729984695,0.08890799255495249,0.11068439247260536
0.27955341744628315,0.09016172625195905,0.11098088349510135
0.28412468355809156,0.09344679204614795,0.1137579700291301
0.27271912471714344,0.09144313893361795,0.11012015567393958
0.2684270652101118,0.09173362059180191,0.10930629301334768
0.27118968672921,0.09443500456395565,0.11136516984627243
0.2651434286915629,0.09405747398684765,0.10980056218990375
0.27312512646209175,0.09867919880865364,0.11405737606321151
0.2740636386675585,0.10082530227308446,0.11540964851268438
0.2671506881632312,0.1000540707619737,0.11344029098232014
0.2611331003662416,0.09954291290009742,0.11181113429066444
0.26205757719335776,0.10165481511771202,0.11314206413705165
0.26899765543798304,0.10616430418492968,0.11710425228263119
0.2629881253536043,0.10558054906652758,0.11543833123766688
0.26471273122861383,0.10808419431474467,0.11715795446640422
0.2570190142946053,0.10671286452600669,0.11469354036985083
0.259574225620694,0.10957323320798955,0.11679012081860618
0.26209799791059396,0.11246768590895341,0.11889772305420812
0.2561366194791807,0.11170923534368793,0.11714982193314476
0.2611528646045577,0.11574443111241733,0.12042595008340856
0.26108243297622746,0.11757302370899296,0.12138187384920167
0.2651798864721602,0.1213205433641115,0.12429784642764595
0.2592302105020543,0.12047147305049066,0.12250442504705994
0.24998575917687316,0.117994527313616,0.11910259904672804
0.2532055579787828,0.12137044065740805,0.12162309106584014
0.25061541655585595,0.12197970731161166,0.12136258140474121
0.25377817477835574,0.1254073619341024,0.123897703807727
0.25690116421667125,0.12887670448909438,0.1264460100285171
0.25509403504207717,0.1298974401934858,0.12658081585941372
0.25003737555940503,0.12922638161999808,0.12508345392951914
0.24662143382498936,0.12935364711177214,0.1243804917181532
0.24402188358360655,0.1298779605527523,0.12407271083210877
0.24543753571859184,0.13254557674678327,0.12580978055134404
0.24842273787641922,0.13611105671292598,0.12837809610085277
0.24341180741065443,0.13529544793366052,0.1268142283761503
0.2463471314339841,0.13889660131533307,0.12939025075059563
0.2460855316888726,0.1407334096561193,0.13030741543305982
0.24345283518939034,0.14120782847085606,0.12996564044003345
0.23613417588483654,0.13890014045779153,0.12708820404867716
0.23742549481884045,0.1416248460495247,0.12882756597303716
0.23791300763513007,0.14390243756455062,0.13014797786085894
0.23914992527375492,0.1466658125036301,0.13189561843519546
0.24035763756973827,0.14945045820174946,0.1336479750377275
0.23847847897406654,0.15032885866956328,0.13369088725189326
0.23507688605815316,0.15022120370311245,0.13286631261957238
0.2377461568541766,0.1540062573567823,0.13548005087099757
0.23585004836914608,0.15486058230061753,0.13550634435438313
0.23920218986476874,0.15919436888839875,0.1385657566961942
0.2350405380128027,0.15854099600208507,0.13727969751840907
0.2279307415621234,0.15581800287312508,0.1342286627805507
0.22973735420888863,0.15916330320292282,0.13641408654035453
0.23003628840205584,0.16150499430023435,0.13772602317932148
0.2317746096121332,0.1648983853427905,0.13992159914961477
0.22620134302701095,0.16307609294623504,0.13769586898005573
0.22717779210845557,0.16595492996550362,0.13944611353800582
0.2230860185478945,0.1651244324517163,0.1380816845716413
0.22259644250519556,0.1669392180666394,0.1389357163127445
0.22066784560845926,0.1676747904944561,0.13889156930986363
0.22227912452631599,0.17112137445881437,0.14108675554821945
0.2210355488378744,0.172398617707109,0.14148501457963675
0.22118439743576201,0.17477620779090436,0.14278217225102993
0.2227016649735593,0.17827828388330852,0.1449856420804389
0.2186439380834067,0.1773174367218972,0.14355961885317425
0.2166747412393455,0.17801395578710483,0.14348555790502468
0.21265499661395726,0.17698918215821133,0.1420341290890699
0.21545753505602916,0.18165721514495609,0.14514719367407955
0.21550123372070912,0.18405850302344282,0.14643322498766087
0.21350688702521448,0.18472656419861888,0.1463383664650016
0.21484980598406372,0.18830454421162646,0.14854284464260742
0.2101845969791588,0.18660916597533783,0.14658941102548667
0.21675442068182732,0.19494182494587795,0.15249991180821754
0.21012364199215033,0.19143288107921377,0.14913924162781628
0.20810606426426603,0.19205752320452024,0.14901606723045835
0.21125837646667106,0.19749984737922466,0.15261953676714798
0.20920946274792218,0.198126470473477,0.1524903461169769
0.20779953045613284,0.19935037431586305,0.1528227295488574
0.2057494991324521,0.1999523023396661,0.15268016249244004
0.21061698709077548,0.2073484606386928,0.15770892875954845
0.21476546627500126,0.2141890142769242,0.16228021658947875
0.21138859103058694,0.21357282807811723,0.16119095716740797
0.21910965081890021,0.22426676995021974,0.1686160764213176
0.21630263583685894,0.22429124833130576,0.16799585462509167
0.22078478483160432,0.2319400571226813,0.17307196481305173
0.21914920628034612,0.2332450934034704,0.1733965631301883
0.21093321789662445,0.22745441760956778,0.168465652588441
0.20814671300304877,0.22740888492292116,0.16781284999413165
0.20419442497466744,0.22603871411968093,0.16619307601081335
0.20786221976792094,0.23314661168784184,0.17079800779059467
0.19869612396761704,0.22582499004171963,0.1648391368549446
0.19998714344709423,0.23031866810191082,0.16751855823340317
0.1915344413503326,0.22352945559514437,0.16200357169206872
0.18431744203615574,0.2179879379071376,0.157430437821501
0.18671968439371647,0.2237961418238965,0.16105914821211265
0.17848551960652786,0.21681097145048478,0.15548931868504268
0.17697394906984007,0.21788318634113613,0.1557181580166981
0.1721768408756757,0.2148555538210964,0.15302693792835634
0.17068182075469457,0.2158932215161082,0.15324115061133464
0.16703269020271805,0.2141689929594412,0.1515016002238487
0.1623514934799656,0.21102765161668105,0.14877609747884038
0.15983230398934586,0.21062081578409486,0.14799158232197301
0.15210014025962734,0.20321081975428956,0.14230922339447113
0.14965712727001396,0.20273236674003473,0.1415038315791617
0.14671544522764546,0.2015297519540737,0.1402010871784075
0.1427817304078774,0.1988859079576016,0.1379086047385997
0.13838873995049156,0.19549326156911104,0.1351145610740821
0.13554481756105752,0.19419879029920686,0.13378505267796684
0.1346993973035427,0.19574740912190872,0.13441735464416354
0.13188570642062675,0.19441528365660865,0.1330746546725719
0.1329653101187349,0.19884296649945182,0.1356713096309683
0.12776978741131034,0.1938552542982706,0.13184852007396416
0.12549091303602694,0.1931874733033991,0.13097953701839496
0.12557050687184154,0.1961610835711731,0.13257782874341442
0.12422520387738874,0.19694103440215918,0.13268885133429575
0.12425118096949589,0.19992755627673553,0.13428190964814293
0.12288236313091433,0.2007027335188478,0.13438509061379592
0.12106100534672656,0.2007276707051997,0.13398746579914242
0.12190545974319912,0.2052176547656686,0.13656418394122827
0.11918933634420778,0.20373643268784036,0.1351642561435621
0.11649980306437226,0.2022316825933422,0.13375782272480033
0.11383702661292974,0.2007035852763696,0.1323450173764154
0.11416093776578154,0.20445302344613364,0.13441074096121816
0.11569279147439632,0.21049685221344644,0.13796832519319768
0.0008249891978012678,0.0015251474879227982,0.0009966535724982974
0.0,0.0,0.0
0.0,0.0,0.0
0.0,0.0,0.0
0.0,0.0,0.0
0.0,0.0,0.0
0.0,0.0,0.0
0.0,0.0,0.0
0.0,0.0,0.0
0.0,0.0,0.0
0.0007201336702305,0.0015754261462085945,0.0009997201282470533
3.0640110335837196,6.823935954749582,4.317812515758984
3.00963521553719,6.825145889717137,4.306188968891955
2.963671372079724,6.84508620567081,4.306417399368222
2.9196395595025786,6.86957670306613,4.309499885098333
2.8651100455670786,6.869084746082809,4.296937189355379
2.814031740914525,6.876262601530533,4.289229197890659
2.7710854913508474,6.903234848104977,4.293875509239453
2.7108065444430154,6.886497556897867,4.271382162872831
2.6742988042110536,6.929941879193774,4.286235075314249
2.649315782190076,7.004882039629389,4.320426414709934
2.596996326696986,7.008398651143506,4.3104926518866264
2.5441936683100512,7.009975253664632,4.299418858934201
2.505737882024864,7.051234959115239,4.3126712913956755
2.444962614680716,7.029356925157421,4.2873339138522395
1.9501966155325738,5.730503441265001,3.485439762155061
1.080115241134671,3.2450369192021093,1.9682487753404667
0.6636285448088268,2.0393010691135056,1.2335012648845864
0.6476764454259745,2.0365758048259917,1.228454299311156
0.6269136389459312,2.018014169631485,1.2139057941628122
0.6114727402443939,2.0158785751049075,1.2092875318888037
0.5931447069234294,2.0036644574514386,1.1986616959475478
0.5754988477254885,1.992977246275001,1.189001230929872
0.5585029562049939,1.9838292667189972,1.1803054216682431
0.5428135105131475,1.978743427137112,1.1740631712721779
0.5263314649946937,1.9701978497255392,1.1658034287371284
0.5102166723991289,1.9623749736308178,1.1580106166265363
0.49615689245798167,1.9620179507944537,1.1546491477187308
0.48047702045829527,1.9548285454025651,1.1472911091542828
0.46573301967336417,1.950912283225474,1.141883716735065
0.4516623702807263,1.949442142788084,1.1379282253062353
0.4382153518344928,1.9504325982822182,1.1354211108590968
0.43015243239827217,1.9759947761373042,1.1471873218046025
0.4190925535416346,1.9887972972922596,1.151496285421802
0.40580951105427576,1.9913306335276588,1.1498461318187696
0.3873105526519998,1.967312594325227,1.1329084990308351
0.3384356013045797,1.7814234347331883,1.023091374918592
0.5413885856191049,2.9566284373979483,1.693442355543511
0.5187734981685918,2.9432055649605626,1.6812070113066666
0.49754278935505425,2.936504653865692,1.672856378671921
0.475601886088983,2.924505339449284,1.6615296779966864
0.45520306619814943,2.920980881722539,1.6550548480955978
0.43334607485460996,2.9069746571552058,1.642680497128434
0.4129424493490236,2.9014653455836172,1.635149725165568
0.3918276565055433,2.889771814063817,1.6241718951443957
0.37146211383076533,2.882273643127384,1.6155927275208593
0.3511253266824229,2.8737810603856504,1.6064915629617453
0.33033320934475097,2.8599466722212643,1.5944487586573093
0.3107038956885726,2.854673866635775,1.5872183547024274
0.29108862434396854,2.848412912222461,1.5794659631593366
0.27108848195651114,2.8368012486407475,1.5687830947309023
0.25142772287541915,2.8268065741857136,1.5590361422434391
0.23236083790587503,2.8219317290513075,1.5521441134214145
0.21285835392762975,2.8099465013555327,1.5413749790776954
0.19408738809772785,2.8057175766014812,1.5348929830684102
0.17496190127632394,2.7943677807067693,1.5245465976291954
0.1562095047904879,2.7864064687941843,1.5160851995962223
0.13780600544179922,2.7827225368947826,1.509975738363555
0.1191375631587881,2.771024057331768,1.499547147783409
0.10090419228895309,2.7662450924009985,1.4928941062334555
0.08273225189741606,2.7604809001779427,1.4857313199922169
0.06482559340107175,2.7616586241809173,1.482317685591225
0.046748460156419536,2.7521630772482166,1.4731932444136286
0.028827327826413396,2.7434405653030387,1.4645148276066526
0.01053957358879365,2.610150432848412,1.3895517791064491
-0.006219023515766975,2.565810071861598,1.3622063785882985
-0.022878370726505448,2.5770045741915273,1.3643975777000987
-0.03940499214760207,2.571322614907206,1.3576496598646386
-0.05576198620311312,2.562007396920361,1.3490090991787391
-0.0721798684436501,2.5596759318409754,1.3440663443016492
-0.08873364452018262,2.5625673105289613,1.3418686330826435
-0.10523450459309791,2.5636019246110058,1.3386960746511305
-0.12173180358139446,2.5645497876467367,1.3354782153934412
-0.13683987695359223,2.5397037443104797,1.3188654821454369
-0.15075744552114634,2.500567514953911,1.294926740764649
-0.1653403339620072,2.479063193145026,1.2802084536676357
-0.179308653807436,2.4530281091832618,1.263220915891854
-0.19109528722034574,2.4038273820940863,1.2344140746401682
-0.19865533907020927,2.312814858971825,1.18433966777478
-0.19856556185388552,2.151575111682023,1.098668456198176
-0.20945212707804628,2.122492856033566,1.0807566967661861
-0.22256845454561713,2.1181913333078763,1.0755117409371922
-0.2353235584205886,2.111154121563449,1.068894380957625
-0.248189182960026,2.105821132903526,1.063157804468956
-0.25866192329408044,2.0817740030767413,1.04801533563857
-0.2675441509486106,2.0478947314599196,1.028006340152857
-0.27744636931840894,2.0246030708213936,1.0133940715575536
-0.2865356624789307,1.9976986666667704,0.9970451837226157
-0.2890273089386399,1.9290308068766648,0.959989306513061
-0.29812298281083394,1.9082289827356762,0.9468822181414666
-0.312430012934502,1.9210748508284845,0.9504816979450873
-0.3306428260995552,1.9560157401881817,0.964942558497877
-0.3637587791869108,2.073305790975138,1.0198062073440883
-0.3722545758638458,2.0469000962509045,1.0038562466069605
-0.37040495259884765,1.9672973730271934,0.9619683369839863
-0.37030033943854024,1.9018563562910042,0.9272130644254192
-0.37630552223577085,1.8709219866550792,0.9094181769401214
-0.38154922728087937,1.8381827734237,0.8908358793961972
-0.39129610764132594,1.8284005258432847,0.8834382811953007
-0.3968268096047497,1.800009048919544,0.8671018610390072
-0.40600531738929424,1.7892501709116686,0.8593134474026952
-0.41175160322371596,1.7643209057732046,0.8447683993061991
-0.4184520567348682,1.7446541452052418,0.8328048793991912
-0.4249044043223761,1.724953116813212,0.8208791176277263
-0.4311086811685647,1.7052195302164272,0.8089920146386202
-0.43911912081171844,1.6933766660511262,0.8008910155206459
-0.4479166348563296,1.6850104616345662,0.7944601450679459
-0.4580462047819953,1.6818707954002048,0.7905064410165453
-0.4686278503623731,1.680433181120513,0.7873553156471897
-0.47894329355185483,1.6780615769358882,0.7837678701210217
-0.4879520980387635,1.6712527891632023,0.7781170298040845
-0.49609419413869504,1.6617708236376616,0.7712410388505397
-0.5067892082411369,1.6609945813539433,0.7684158274319774
-0.5180227907943942,1.6619079816925364,0.7663670879102008
-0.5267712472391333,1.6549041508869615,0.7606713228290768
-0.5354361889786836,1.6478555394463537,0.7549705988882892
-0.5428624576298098,1.6372793163473376,0.7476745432707887
-0.5563395676010533,1.6449350538932954,0.7487029294891321
-0.5636251429777396,1.6342670936945667,0.74138985866428
-0.5729185064109469,1.629639407394047,0.7368339795600881
-0.5840228020847367,1.630162831609859,0.7346071514371633
-0.5979828854709616,1.6384141349308328,0.7358430999495313
-0.6133374529223248,1.6500396466918603,0.7385577042276575
-0.6278637676183667,1.6589822197808315,0.7400332952355007
-0.6431727798990531,1.6695610828475052,0.7422019308990616
-0.6920245283898717,1.7652536789467104,0.782037714024348
-0.7588693476172039,1.9027081254964808,0.8400089542954464
-0.7745201158085698,1.9092466520559395,0.8399532417930733
-0.7817797173738382,1.8951293042517134,0.8308128404754771
-0.7899507334486552,1.8835491819785655,0.8228152522827463
-0.8005371351935534,1.8779108351643177,0.8174305590233847
-0.8140193222813515,1.879037786044607,0.8149880519087418
-0.8316476476151093,1.8894490152436214,0.8165443870608535
-0.855874530862802,1.9141927886342054,0.8242292459630552
-0.8989061289549994,1.9794821430741973,0.84922007335009
-0.9907734507581238,2.148584726888781,0.9183660396750344
-1.0550723437574423,2.2536052334963435,0.9596744739942831
-1.0697787644584653,2.251029377078816,0.9549879228520144
-1.0832517551123866,2.2458455651834397,0.9491936119648544
-1.0995560116765355,2.246469621474658,0.9458472126004324
-0.6731238343511308,0.1943712847620545,-0.26481149252729896
-0.6880630440726119,0.19439679231162799,-0.2720371368559151
-0.6876996750446192,0.1900148822938918,-0.27323907176764217
-0.688212451775748,0.18588065243200175,-0.2747873599027917
-0.6887019397311489,0.18174013245894693,-0.276326349366897
-0.6918742448485091,0.1782908099847223,-0.27894703149611305
-0.6878056890701025,0.1729867417260998,-0.2786448605868783
-0.6873209466187203,0.16861750862801728,-0.27978403945083835
-0.6922340606376416,0.1655501971743828,-0.2831275104676936
-0.6926078479679788,0.16136941669941113,-0.28462313673038914
-0.6893396099371425,0.1563623740605709,-0.2846150860575426
-0.692380037992521,0.15279189004375082,-0.28721001137602536
-0.6791010744210888,0.1456868965198702,-0.2830143959403873
-0.6712226910982513,0.1398740142322727,-0.28102747638754044
